ply
format ascii 1.0
element vertex 1242
property float x
property float y
property float z
property uchar red
property uchar green
property uchar blue
end_header
-42.3395 -8.40772 -24.0402  255 255 255
-49.5123 60.3076 -29.4639  255 255 255
-59.9354 143.458 -63.1851  255 255 255
-48.4921 60.8303 -30.1753  255 255 255
-48.3915 63.9548 -25.7448  255 255 255
-48.4925 71.111 -20.4418  255 255 255
-43.1856 9.48879 -40.3355  255 255 255
-58.7209 143.464 -63.1692  255 255 255
-29.1982 -61.3802 38.8274  255 255 255
-44.5463 42.0964 -47.8179  255 255 255
-28.681 -63.5196 41.4011  255 255 255
-44.531 61.5967 -33.3891  255 255 255
-52.304 145.614 -66.6561  255 255 255
-43.3849 90.4059 -18.2452  255 255 255
-40.4446 66.809 -28.9737  255 255 255
-25.7233 -55.8524 32.7494  255 255 255
-36.3224 66.9707 -33.1598  255 255 255
-24.4154 -62.2258 39.0054  255 255 255
-28.0475 -17.9311 23.7655  255 255 255
-23.9533 -64.8552 42.5352  255 255 255
-24.2149 -61.8546 39.3226  255 255 255
-28.1509 -15.2611 22.787  255 255 255
-30.9589 44.541 -56.5586  255 255 255
-25.5403 -30.9014 21.183  255 255 255
-22.7035 -60.7297 38.6237  255 255 255
-26.5499 -6.40748 12.4876  255 255 255
-22.1547 -64.792 42.0098  255 255 255
-24.9295 -22.2434 29.229  255 255 255
-22.254 -58.0825 34.939  255 255 255
-25.6031 -4.70442 10.4986  255 255 255
-33.4845 118.499 -36.5122  255 255 255
-24.5708 -23.4048 31.6927  255 255 255
-25.2811 -7.01277 13.4163  255 255 255
-21.8501 -57.9423 34.7406  255 255 255
-32.3244 117.376 -35.0276  255 255 255
-21.6242 -55.5738 31.4174  255 255 255
-21.2522 -61.4961 38.7433  255 255 255
-26.708 57.6196 -48.7283  255 255 255
-25.9312 54.6216 -51.2873  255 255 255
-21.0199 -55.6918 32.3094  255 255 255
-20.7554 -61.3964 38.7999  255 255 255
-24.8736 47.983 -57.6132  255 255 255
-24.787 54.9231 -52.3978  255 255 255
-22.5423 -9.43385 20.1634  255 255 255
-20.0444 -51.6971 29.2904  255 255 255
-22.2999 -2.65735 7.70784  255 255 255
-22.0374 -9.36598 20.3646  255 255 255
-21.2163 53.3079 -57.3982  255 255 255
-21.0918 -0.494209 5.3478  255 255 255
-21.3396 56.1662 -54.0076  255 255 255
-23.1509 81.7136 -27.3943  255 255 255
-19.259 70.0051 -42.8106  255 255 255
-19.248 70.3179 -43.3101  255 255 255
-15.6643 15.8437 -50.0833  255 255 255
-16.8152 49.971 -61.1229  255 255 255
-16.9504 -61.6306 38.6954  255 255 255
-17.465 -0.162396 9.24709  255 255 255
-16.2027 -61.5685 38.9698  255 255 255
-13.5739 56.4648 -62.4128  255 255 255
-15.4417 69.7543 -46.6069  255 255 255
-17.3036 82.8041 -32.3839  255 255 255
-13.3401 59.0595 -58.5395  255 255 255
-17.9676 115.561 -38.1893  255 255 255
-15.6982 -60.4927 37.4042  255 255 255
-14.0283 69.6026 -48.174  255 255 255
-17.053 113.597 -35.9936  255 255 255
-15.1053 -60.5433 37.2294  255 255 255
-16.2476 118.443 -39.2051  255 255 255
-15.8873 123.323 -41.44  255 255 255
-9.57741 20.8385 -54.7787  255 255 255
-15.726 118.983 -39.5422  255 255 255
-15.4216 114.894 -38.2192  255 255 255
-15.2565 109.829 -35.6819  255 255 255
-15.0108 116.009 -38.7506  255 255 255
-8.97114 51.3466 -68.7569  255 255 255
-14.3905 -58.9514 35.3938  255 255 255
-11.3726 68.7102 -51.2122  255 255 255
-15.7337 -2.96595 24.1307  255 255 255
-14.2121 -59.0841 35.4822  255 255 255
-14.0806 -58.5717 34.8892  255 255 255
-14.0885 -58.5402 34.9249  255 255 255
-13.9718 114.67 -37.8286  255 255 255
-14.0927 116.811 -38.9079  255 255 255
-13.5005 105.282 -34.8315  255 255 255
-13.0032 122.822 -42.1621  255 255 255
-12.7731 124.184 -42.8917  255 255 255
-12.6849 120.039 -41.0637  255 255 255
-14.8916 -21.1012 33.4178  255 255 255
-12.539 108.84 -36.5762  255 255 255
-5.67141 28.5831 -64.9196  255 255 255
-11.0287 82.1702 -37.0538  255 255 255
-7.37136 60.7915 -60.1361  255 255 255
-11.7861 107.162 -36.0888  255 255 255
-11.8971 113.368 -37.9744  255 255 255
-11.235 109.817 -37.6325  255 255 255
-10.8626 125.627 -44.0855  255 255 255
-10.6772 126.876 -44.513  255 255 255
-4.53052 22.901 -58.0681  255 255 255
-9.91717 111.013 -37.7537  255 255 255
-8.85958 140.395 -55.4142  255 255 255
-9.6207 119.854 -41.2376  255 255 255
-9.64834 98.9295 -33.7097  255 255 255
-9.64834 98.9295 -33.7097  255 255 255
-9.66703 106.708 -36.1304  255 255 255
-3.77006 57.4237 -66.0906  255 255 255
-9.29586 102.701 -34.8247  255 255 255
-9.28454 111.131 -37.5488  255 255 255
-9.22071 125.158 -42.6068  255 255 255
-8.95389 122.974 -42.1744  255 255 255
-12.9771 -19.1819 32.2846  255 255 255
-8.7175 102.912 -34.8663  255 255 255
-5.75936 75.6244 -49.5194  255 255 255
-8.17033 125.66 -45.1382  255 255 255
-8.37458 111.334 -38.4453  255 255 255
-7.88688 123.549 -44.6823  255 255 255
-2.52561 21.2792 -57.3183  255 255 255
-4.29239 68.8936 -56.3189  255 255 255
-7.90512 116.158 -40.4319  255 255 255
-7.6691 127.652 -45.6134  255 255 255
-8.10889 97.198 -33.5677  255 255 255
-8.02963 97.1935 -33.578  255 255 255
-8.05356 115.457 -38.3475  255 255 255
-7.53655 122.604 -41.6392  255 255 255
-12.533 -10.8724 31.7851  255 255 255
-6.65143 126.15 -45.7307  255 255 255
-7.04599 111.213 -38.0612  255 255 255
-6.50212 116.601 -40.9286  255 255 255
-6.50212 116.601 -40.9286  255 255 255
-12.2081 -23.5465 35.653  255 255 255
0.107103 30.5275 -67.1349  255 255 255
-6.2924 112.833 -38.4769  255 255 255
-11.9174 -8.72915 31.7571  255 255 255
-5.15132 127.34 -47.1344  255 255 255
-11.8439 -14.6705 33.1338  255 255 255
-11.4771 -3.40946 28.0291  255 255 255
6.92987 98.5346 -91.5477  255 255 255
-11.7554 -22.5318 34.7255  255 255 255
-5.66357 104.201 -36.7544  255 255 255
-5.66357 104.201 -36.7544  255 255 255
-5.31592 115.625 -40.5646  255 255 255
-0.448945 19.4627 -53.5823  255 255 255
-2.02746 74.8777 -51.2091  255 255 255
-5.16402 97.8441 -34.6513  255 255 255
-4.39257 99.2133 -36.3563  255 255 255
-0.115935 70.1038 -58.8633  255 255 255
-11.0525 -7.81878 31.6197  255 255 255
-3.22186 128.397 -47.8405  255 255 255
-10.0398 -61.2717 37.474  255 255 255
-2.86896 129.442 -48.4562  255 255 255
2.46336 27.7908 -63.9698  255 255 255
-10.6264 -10.7386 32.9912  255 255 255
5.12734 49.3171 -81.9645  255 255 255
2.76706 24.8525 -59.8566  255 255 255
2.71419 24.8205 -59.6799  255 255 255
-0.601243 79.7832 -48.4233  255 255 255
-3.23683 94.1317 -33.8814  255 255 255
-2.67367 116.757 -40.7893  255 255 255
-1.44851 130.608 -51.8637  255 255 255
-1.21405 129.796 -49.135  255 255 255
-9.4003 -35.945 32.9987  255 255 255
2.3095 72.3769 -58.0168  255 255 255
-1.67581 98.9186 -35.8264  255 255 255
-1.83276 93.1298 -33.0586  255 255 255
-0.255664 129.174 -48.8897  255 255 255
-0.247931 129.46 -49.3296  255 255 255
0.328236 130.489 -49.9761  255 255 255
-0.878974 113.435 -36.9384  255 255 255
-8.10327 -45.2588 31.1967  255 255 255
-9.30142 -8.48483 33.0303  255 255 255
5.2889 23.8857 -59.8702  255 255 255
4.91326 68.4937 -63.4203  255 255 255
1.23101 129.417 -49.2492  255 255 255
1.23317 129.59 -49.5128  255 255 255
-9.09543 -10.9178 33.9552  255 255 255
2.69901 83.0841 -49.2423  255 255 255
0.360961 95.9985 -35.0945  255 255 255
-0.663004 94.1645 -29.1009  255 255 255
0.630563 99.689 -37.3906  255 255 255
0.104429 97.1821 -31.3023  255 255 255
2.61871 128.845 -49.0023  255 255 255
-7.93023 -4.2873 30.7038  255 255 255
-6.97104 -46.052 32.0033  255 255 255
7.29789 19.6512 -55.1289  255 255 255
2.88403 100.683 -37.5342  255 255 255
7.16425 77.6497 -57.6536  255 255 255
12.6163 50.8294 -85.5043  255 255 255
-7.39349 -20.8005 34.5654  255 255 255
4.0387 105.755 -41.2145  255 255 255
3.80586 96.1728 -36.6656  255 255 255
3.81985 113.036 -39.1359  255 255 255
-5.92501 -58.0989 33.7401  255 255 255
11.7162 64.214 -73.2068  255 255 255
5.49198 107.611 -42.1648  255 255 255
8.44347 81.675 -54.446  255 255 255
5.24084 96.5009 -37.0077  255 255 255
-6.55119 -14.2696 35.4307  255 255 255
11.1271 76.5507 -62.1216  255 255 255
6.73773 100.704 -40.6122  255 255 255
7.20002 104.733 -42.4496  255 255 255
7.00613 104.236 -41.6681  255 255 255
7.00613 104.236 -41.6681  255 255 255
-6.08354 -19.6911 35.4284  255 255 255
8.2152 91.034 -44.6804  255 255 255
7.36974 97.8546 -37.663  255 255 255
13.8068 69.939 -67.9821  255 255 255
13.382 74.5393 -65.345  255 255 255
-4.47678 -58.9128 34.3702  255 255 255
13.8748 74.8151 -64.6154  255 255 255
-5.21766 -9.81805 34.8085  255 255 255
14.8145 70.1089 -68.3602  255 255 255
-5.16929 -35.9882 36.4732  255 255 255
14.3099 74.3897 -64.8854  255 255 255
9.72463 106.997 -43.1121  255 255 255
15.3233 72.6563 -68.1901  255 255 255
12.1567 88.4993 -51.7207  255 255 255
9.5315 97.9162 -39.0759  255 255 255
-4.72885 -10.91 35.279  255 255 255
-4.37087 -7.73836 34.0172  255 255 255
13.2858 88.5006 -52.7196  255 255 255
-4.46323 -16.0234 35.9403  255 255 255
-4.74843 -30.3704 38.0332  255 255 255
10.8751 98.0806 -39.2876  255 255 255
12.4316 112.084 -45.8242  255 255 255
12.8765 118.525 -48.2147  255 255 255
14.1291 89.8189 -52.6773  255 255 255
-3.7014 -10.6982 35.2072  255 255 255
14.3352 91.8651 -50.6962  255 255 255
-3.76032 -14.0008 35.8678  255 255 255
14.7229 92.3097 -50.2411  255 255 255
14.0853 115.049 -48.3154  255 255 255
-3.11441 -7.67295 34.0569  255 255 255
12.5641 99.1505 -39.729  255 255 255
12.5641 99.1505 -39.729  255 255 255
15.57 132.226 -48.8571  255 255 255
14.0816 99.6238 -41.4481  255 255 255
15.4006 113.219 -47.525  255 255 255
24.2117 61.9897 -85.0708  255 255 255
-1.52121 -57.7362 32.9281  255 255 255
16.1807 102.959 -44.447  255 255 255
17.2242 112.097 -48.5653  255 255 255
17.2242 112.097 -48.5653  255 255 255
17.0142 108.808 -47.0649  255 255 255
17.0142 108.808 -47.0649  255 255 255
25.9756 63.3069 -84.4811  255 255 255
18.0139 114.336 -49.3917  255 255 255
16.8428 103.808 -44.0209  255 255 255
18.5644 115.04 -49.8078  255 255 255
-2.32657 -31.2843 38.9386  255 255 255
-1.5712 -30.1497 37.1143  255 255 255
20.4486 93.2115 -53.9828  255 255 255
19.3582 110.269 -48.0331  255 255 255
-0.467213 -24.724 36.335  255 255 255
-0.467213 -24.724 36.335  255 255 255
23.749 21.1293 -57.93  255 255 255
22.6063 106.927 -48.0389  255 255 255
24.8516 21.6607 -58.6787  255 255 255
26.2002 92.5142 -59.4986  255 255 255
0.963681 -16.7163 35.4993  255 255 255
33.5035 78.6026 -77.548  255 255 255
28.8634 98.2763 -58.6698  255 255 255
1.49308 -31.9131 38.4498  255 255 255
35.7936 88.7095 -70.864  255 255 255
35.9039 90.8474 -66.9431  255 255 255
36.8104 88.9502 -69.7332  255 255 255
-75.3275 -2.28965 97.567  255 255 255
-123.707 -0.879261 -22.1419  255 255 255
-177.95 125.308 -125.949  255 255 255
-149.451 62.4226 -93.853  255 255 255
-169.809 108.798 -118.939  255 255 255
-153.144 118.461 -85.9092  255 255 255
-149.351 124.893 -74.7733  255 255 255
-153.05 94.4332 -101.441  255 255 255
-149.358 115.548 -80.8971  255 255 255
-150.234 105.137 -90.7519  255 255 255
-148.09 116.512 -81.1672  255 255 255
-149.798 89.9703 -102.091  255 255 255
-143.489 113.014 -75.5416  255 255 255
-130.469 74.9789 -76.7205  255 255 255
-128.283 77.7331 -72.9982  255 255 255
-119.416 93.1605 -46.2272  255 255 255
-119.114 102.4 -39.6536  255 255 255
-118.901 88.3957 -47.4121  255 255 255
-117.637 86.101 -44.2917  255 255 255
-119.744 85.4989 -52.3579  255 255 255
-118.436 101.658 -41.6697  255 255 255
-113.626 77.4083 -44.0488  255 255 255
-136.162 144.333 -69.4884  255 255 255
-112.611 95.387 -34.507  255 255 255
-111.314 78.8068 -40.4188  255 255 255
-122.569 118.078 -50.6713  255 255 255
-101.397 63.9464 -31.6451  255 255 255
-102.205 68.1208 -31.3591  255 255 255
-102.205 68.1208 -31.3591  255 255 255
-98.5237 67.2073 -24.4973  255 255 255
-126.306 151.925 -73.2928  255 255 255
-84.9965 65.4861 -1.2509  255 255 255
-70.7752 -19.0973 -7.6264  255 255 255
-89.5313 84.0897 -9.48462  255 255 255
-69.399 -20.1834 -5.6826  255 255 255
-84.4558 26.0287 -32.9316  255 255 255
-82.9201 33.5953 -27.1219  255 255 255
-100.927 116.688 -40.4462  255 255 255
-100.751 117.922 -39.4495  255 255 255
-82.3791 33.6738 -27.2813  255 255 255
-100.02 119.715 -39.3023  255 255 255
-80.7845 53.0445 -10.9399  255 255 255
-99.6629 115.612 -43.2086  255 255 255
-80.4779 50.2648 -13.917  255 255 255
-98.6638 117.918 -41.7221  255 255 255
-97.4801 119.288 -38.8481  255 255 255
-97.7924 116.673 -43.0217  255 255 255
-97.42 115.804 -41.6768  255 255 255
-97.2417 116.784 -40.9043  255 255 255
-97.677 117.95 -42.5628  255 255 255
-96.183 119.234 -43.9497  255 255 255
-78.4822 43.1503 -22.4675  255 255 255
-78.0954 39.3901 -25.4715  255 255 255
-95.2865 119.689 -42.2682  255 255 255
-78.318 25.2296 -38.2653  255 255 255
-71.4314 -0.427488 -27.389  255 255 255
-77.2144 50.9991 -16.1106  255 255 255
-78.1583 27.4429 -37.5443  255 255 255
-78.834 77.9888 -5.24383  255 255 255
-77.3018 35.7788 -30.4608  255 255 255
-93.5639 119.462 -41.5517  255 255 255
-76.629 34.2766 -32.2856  255 255 255
-50.3989 -45.9834 23.4805  255 255 255
-75.7766 36.1127 -31.2126  255 255 255
-73.5796 65.5259 -5.04317  255 255 255
-73.1648 65.4751 -4.31483  255 255 255
-73.5637 55.8725 -14.1265  255 255 255
-75.5171 93.0633 -12.8381  255 255 255
-44.9831 -50.3158 27.6149  255 255 255
-67.835 64.8135 -11.2513  255 255 255
-46.9405 -42.4282 18.3851  255 255 255
-84.6224 142.261 -51.8872  255 255 255
-66.3207 67.6141 -8.56322  255 255 255
-52.8827 -17.6562 -9.98639  255 255 255
-52.0544 -19.3896 -8.05866  255 255 255
-62.3685 53.4773 -25.9535  255 255 255
-66.5047 105.507 -15.1631  255 255 255
-52.2696 -6.15562 -21.7004  255 255 255
-60.7529 67.9221 -13.4875  255 255 255
-50.5509 -7.54108 -21.2209  255 255 255
-35.7313 -61.2609 38.9577  255 255 255
-38.7931 -48.8471 25.1835  255 255 255
-49.2635 -8.49165 -19.1747  255 255 255
-57.6947 42.0852 -38.2452  255 255 255
-56.8788 42.2905 -39.1458  255 255 255
-36.4384 -54.0762 31.4774  255 255 255
-56.3159 71.7578 -14.009  255 255 255
-55.3015 56.8363 -28.5187  255 255 255
-54.6938 40.9477 -42.4878  255 255 255
-49.3857 26.7402 -57.9928  255 255 255
-47.9054 44.2272 -44.6033  255 255 255
-58.7929 113.939 -108.022  255 255 255
-46.9509 40.6706 -46.731  255 255 255
-29.3513 -61.6447 39.879  255 255 255
-46.4775 72.4411 -20.3973  255 255 255
-43.3781 63.5147 -31.7491  255 255 255
-40.7877 46.9113 -48.5417  255 255 255
-42.6935 86.8441 -21.7428  255 255 255
-39.9586 48.0143 -47.5673  255 255 255
-40.0586 61.6342 -35.4594  255 255 255
-25.9639 -61.5146 39.1093  255 255 255
-25.9639 -61.5146 39.1093  255 255 255
-25.819 -62.0951 39.2146  255 255 255
-25.7686 -57.5573 34.0069  255 255 255
-38.109 76.555 -23.1763  255 255 255
-25.6954 -54.5422 31.095  255 255 255
-25.4128 -56.9268 33.8114  255 255 255
-27.3685 -28.4345 20.411  255 255 255
-33.9309 49.1281 -51.8383  255 255 255
-23.6977 -62.4076 39.8368  255 255 255
-23.542 -64.2932 41.8197  255 255 255
-27.0391 -19.4952 26.1384  255 255 255
-30.66 49.1997 -54.2846  255 255 255
-30.6973 48.7628 -52.9005  255 255 255
-26.106 -17.9062 26.4025  255 255 255
-22.8015 -58.0754 34.9942  255 255 255
-25.6411 -8.3351 14.5252  255 255 255
-25.7183 -7.50417 13.4711  255 255 255
-22.431 -55.6806 32.2585  255 255 255
-21.8618 -64.6926 42.5594  255 255 255
-21.8509 -64.9694 42.0003  255 255 255
-22.2387 -57.1681 33.8924  255 255 255
-24.6047 -23.7558 32.1224  255 255 255
-27.5868 54.93 -50.4843  255 255 255
-27.0381 51.4338 -54.6705  255 255 255
-21.6739 -54.9811 31.4104  255 255 255
-20.5079 -63.0944 40.7573  255 255 255
-20.5952 -58.9972 35.6511  255 255 255
-20.3075 -56.4602 32.8763  255 255 255
-22.5232 -7.6085 18.1341  255 255 255
-21.0583 -34.2666 26.3477  255 255 255
-18.3414 53.3278 -59.9152  255 255 255
-18.683 56.8063 -54.5961  255 255 255
-21.7273 82.0287 -29.1873  255 255 255
-22.5142 98.4443 -26.9309  255 255 255
-16.9459 -59.3351 35.9869  255 255 255
-16.6524 -58.966 35.4791  255 255 255
-13.1598 38.2646 -74.9407  255 255 255
-16.4552 -63.0723 38.4292  255 255 255
-16.2762 -59.2841 35.816  255 255 255
-16.3467 -61.4888 38.4937  255 255 255
-15.8401 -58.345 34.86  255 255 255
-15.803 -61.1181 38.2272  255 255 255
-15.3611 -60.9488 38.1054  255 255 255
-16.5427 110.374 -34.9933  255 255 255
-16.5216 121.161 -39.3472  255 255 255
-16.3054 -2.957 23.1317  255 255 255
-15.7593 110.046 -36.442  255 255 255
-10.0121 51.5796 -66.2276  255 255 255
-16.068 -15.9391 31.0143  255 255 255
-14.9216 106.334 -34.8236  255 255 255
-14.8444 117.496 -39.4353  255 255 255
-14.8972 122.105 -40.6204  255 255 255
-13.5924 125.348 -42.3404  255 255 255
-13.7241 -59.1099 35.5371  255 255 255
-12.9286 112.88 -37.7656  255 255 255
-12.9286 112.88 -37.7656  255 255 255
-13.5806 -58.6438 35.585  255 255 255
-11.2734 80.8966 -40.1745  255 255 255
-10.5873 77.2501 -43.1272  255 255 255
-10.6268 77.1048 -42.9007  255 255 255
-12.476 104.606 -34.8605  255 255 255
-12.395 106.712 -35.8984  255 255 255
-14.5701 -2.6582 25.0921  255 255 255
-12.136 112.536 -39.1156  255 255 255
-12.1283 111.982 -38.4615  255 255 255
-14.4071 -21.2789 33.5501  255 255 255
-13.4788 -1.13391 24.1103  255 255 255
-13.4153 -1.06977 23.7491  255 255 255
-10.4282 117.296 -38.4429  255 255 255
-9.88689 110.027 -37.9843  255 255 255
-9.3773 121.858 -42.7644  255 255 255
-7.55089 80.2696 -43.3319  255 255 255
-9.67295 99.025 -32.5534  255 255 255
-4.08262 17.4095 -52.436  255 255 255
-6.70954 75.0657 -47.2684  255 255 255
-13.0091 -25.5526 34.2381  255 255 255
-12.6375 -33.1378 34.0495  255 255 255
-8.45977 109.179 -36.8921  255 255 255
-8.45977 109.179 -36.8921  255 255 255
-7.17146 111.227 -40.7825  255 255 255
-7.30038 103.344 -36.5058  255 255 255
-7.30038 103.344 -36.5058  255 255 255
-7.0867 115.766 -41.6379  255 255 255
-11.7077 -36.0098 32.1262  255 255 255
-6.95915 98.8372 -34.7811  255 255 255
-6.95466 98.9758 -34.9671  255 255 255
-6.78333 120.722 -42.4353  255 255 255
-6.97657 93.6919 -31.5071  255 255 255
-6.16119 114.032 -41.3989  255 255 255
-11.9468 -19.0228 33.0634  255 255 255
-11.9708 -22.247 34.6876  255 255 255
-5.46283 88.6222 -36.9881  255 255 255
-2.14495 70.8511 -55.8906  255 255 255
-5.45223 94.2254 -32.4082  255 255 255
-4.99808 100.581 -36.5504  255 255 255
-3.72625 84.0796 -41.2895  255 255 255
-4.54315 123.025 -43.7714  255 255 255
-10.2165 0.355931 24.6333  255 255 255
-1.42016 85.5952 -43.7785  255 255 255
1.48444 72.832 -58.8223  255 255 255
3.66213 60.6878 -69.5739  255 255 255
-9.92798 -5.13594 30.4289  255 255 255
-8.45462 0.721054 24.2638  255 255 255
0.8388 86.3734 -44.9363  255 255 255
-0.950621 101.725 -36.6434  255 255 255
7.3655 55.2158 -74.6986  255 255 255
-8.10082 -3.96858 30.245  255 255 255
-8.01876 -11.4842 34.7251  255 255 255
-7.70971 -11.643 34.51  255 255 255
2.65803 113.646 -35.5687  255 255 255
6.78084 80.1001 -54.8769  255 255 255
10.5161 60.147 -70.4054  255 255 255
7.20448 87.8712 -48.4931  255 255 255
7.00493 106.86 -41.8813  255 255 255
6.98801 106.811 -41.82  255 255 255
8.11701 93.9848 -42.8404  255 255 255
9.27097 89.8108 -47.8779  255 255 255
8.0729 100.936 -40.983  255 255 255
8.03626 100.663 -40.5378  255 255 255
9.59421 119.994 -44.2854  255 255 255
-5.06627 -20.5285 35.4355  255 255 255
14.9512 75.9976 -64.7106  255 255 255
14.8401 75.8485 -64.3226  255 255 255
-4.84251 -14.9894 36.3788  255 255 255
13.6889 86.902 -54.3023  255 255 255
12.045 112.656 -47.2732  255 255 255
-4.08421 -8.7316 34.313  255 255 255
12.3202 98.7266 -40.0728  255 255 255
19.1086 72.4895 -71.2304  255 255 255
16.1186 90.1887 -53.2595  255 255 255
22.9849 61.9282 -82.9602  255 255 255
21.1965 71.1296 -73.4811  255 255 255
17.3396 90.4405 -53.5374  255 255 255
16.4911 114.039 -49.1776  255 255 255
16.4602 113.875 -48.9065  255 255 255
17.5778 91.7218 -52.5515  255 255 255
23.4847 67.6174 -78.5671  255 255 255
18.0054 118.291 -50.7813  255 255 255
18.6437 91.995 -53.1713  255 255 255
18.0229 108.471 -47.3534  255 255 255
26.051 38.5033 -78.0409  255 255 255
22.4358 89.914 -58.7881  255 255 255
19.9009 110.289 -47.4563  255 255 255
19.9009 110.289 -47.4563  255 255 255
20.0794 102.119 -45.479  255 255 255
1.17496 -35.3151 35.2896  255 255 255
3.23066 -42.9417 28.8528  255 255 255
1.93189 -14.9449 35.8559  255 255 255
32.641 85.9697 -70.9744  255 255 255
1.50355 -31.5158 38.4606  255 255 255
32.3221 92.3937 -64.5478  255 255 255
32.3221 92.3937 -64.5478  255 255 255
30.6037 98.1089 -55.9703  255 255 255
44.2253 61.4009 -98.2707  255 255 255
-79.499 2.6614 96.8591  255 255 255
-162.365 99.2439 -115.09  255 255 255
-149.159 110.26 -85.4954  255 255 255
-138.396 102.014 -73.2968  255 255 255
-127.082 114.351 -51.9603  255 255 255
-131.28 121.974 -59.0254  255 255 255
-127.143 120.492 -54.3997  255 255 255
-115.302 91.3932 -38.5046  255 255 255
-124.983 117.905 -52.5272  255 255 255
-136.445 143.297 -70.9759  255 255 255
-107.28 70.1683 -39.078  255 255 255
-92.861 61.2247 -16.6781  255 255 255
-74.0902 -14.5559 -12.0613  255 255 255
-85.801 48.3685 -15.7692  255 255 255
-83.4489 63.4861 0.535174  255 255 255
-106.322 122.486 -44.5199  255 255 255
-80.3418 60.6028 -4.55459  255 255 255
-80.2642 45.3803 -18.8714  255 255 255
-80.2999 40.4721 -22.5844  255 255 255
-97.2084 119.529 -41.9095  255 255 255
-95.732 121.962 -36.9322  255 255 255
-78.0251 55.9932 -10.3985  255 255 255
-78.1649 56.171 -10.9158  255 255 255
-78.4266 41.2566 -24.0495  255 255 255
-77.211 63.4673 -4.31019  255 255 255
-93.9624 120.109 -38.6191  255 255 255
-77.9895 34.5388 -31.3704  255 255 255
-77.5273 38.311 -26.6772  255 255 255
-80.8694 83.6811 -9.50454  255 255 255
-77.2361 28.0631 -37.1314  255 255 255
-74.6207 64.4648 -5.7936  255 255 255
-74.3052 53.3388 -17.1877  255 255 255
-75.72 90.7361 -11.163  255 255 255
-70.9271 36.6051 -34.2783  255 255 255
-74.9415 94.4844 -13.0075  255 255 255
-65.5891 66.0234 -10.5262  255 255 255
-63.0899 68.4915 -9.30526  255 255 255
-39.3324 -51.6586 27.1078  255 255 255
-87.1766 195.028 -104.344  255 255 255
-59.4641 61.3828 -21.6268  255 255 255
-59.411 61.1639 -21.2473  255 255 255
-50.5683 -4.3519 -24.1333  255 255 255
-38.7372 -48.0325 24.4333  255 255 255
-49.1761 -3.81264 -24.2944  255 255 255
-56.2907 66.7002 -18.2394  255 255 255
-53.8397 28.7376 -51.6169  255 255 255
-43.4657 -14.2714 -12.9975  255 255 255
-53.2914 71.8415 -14.243  255 255 255
-32.6864 -61.5779 40.2663  255 255 255
-44.3005 -9.12763 -19.3914  255 255 255
-34.1402 -51.233 28.1384  255 255 255
-50.721 72.4891 -15.2501  255 255 255
-32.9362 -53.7531 30.6106  255 255 255
-31.3901 -59.6792 37.352  255 255 255
-31.3912 -59.6404 37.3933  255 255 255
-49.1625 72.4438 -17.1814  255 255 255
-44.0849 15.9988 -47.3818  255 255 255
-45.8333 63.4813 -31.8701  255 255 255
-27.831 -62.1159 40.3982  255 255 255
-42.8131 91.1859 -18.2142  255 255 255
-38.9953 76.2948 -22.5644  255 255 255
-26.3471 -55.821 32.807  255 255 255
-43.9371 218.615 -129.885  255 255 255
-22.4726 -64.6803 41.9717  255 255 255
-22.7845 -55.3855 31.9278  255 255 255
-23.4677 -4.14585 9.49835  255 255 255
-24.4334 64.2384 -45.3307  255 255 255
-25.1215 80.5491 -29.1829  255 255 255
-20.7472 -4.99452 15.1633  255 255 255
-18.5059 -57.3472 33.7183  255 255 255
-18.3433 -65.1948 42.9112  255 255 255
-17.6197 16.714 -49.3608  255 255 255
-19.8784 -0.878863 6.02543  255 255 255
-16.6025 -61.6943 38.6897  255 255 255
-16.2089 -58.4525 34.9829  255 255 255
-15.9043 -29.1313 36.1585  255 255 255
-9.93663 60.5055 -59.0319  255 255 255
-9.93663 60.5055 -59.0319  255 255 255
-8.35872 68.154 -54.0345  255 255 255
-5.26044 214.202 -130.243  255 255 255
-11.2426 100.418 -34.1265  255 255 255
-8.96663 90.0362 -33.1613  255 255 255
-12.9757 -21.9581 34.1076  255 255 255
-6.48945 116.305 -38.9206  255 255 255
-11.0853 -37.2432 31.5975  255 255 255
-3.54686 82.6768 -44.5304  255 255 255
-4.77079 118.832 -43.2914  255 255 255
-4.14148 87.3207 -39.6862  255 255 255
1.5571 27.0786 -63.3008  255 255 255
-10.1185 -60.188 36.4409  255 255 255
-11.2221 -16.0731 33.6777  255 255 255
-11.2162 -16.0518 33.6233  255 255 255
1.13105 72.9475 -56.5057  255 255 255
-9.4201 0.571694 24.6174  255 255 255
6.51371 52.1633 -78.4501  255 255 255
-8.43386 -45.9051 31.9501  255 255 255
-8.56115 -60.5016 36.4966  255 255 255
-8.31316 -3.23457 29.8504  255 255 255
8.72385 69.983 -65.3066  255 255 255
-7.44633 -20.3061 36.2567  255 255 255
-7.06262 -6.04157 33.437  255 255 255
5.96004 90.7066 -44.7264  255 255 255
7.908 87.6224 -49.5729  255 255 255
-6.41735 -14.74 36.0697  255 255 255
12.0759 85.5124 -54.9606  255 255 255
10.4451 93.1576 -45.713  255 255 255
-4.39312 -38.664 33.3866  255 255 255
10.3405 120.075 -42.9895  255 255 255
10.7299 119.791 -44.1877  255 255 255
16.7982 75.066 -65.3586  255 255 255
16.9985 75.4244 -66.1633  255 255 255
16.7982 75.066 -65.3586  255 255 255
-3.7367 -9.91634 34.3588  255 255 255
19.1417 72.5349 -71.4807  255 255 255
15.2279 91.1751 -51.8729  255 255 255
19.9265 75.7943 -69.1149  255 255 255
23.9107 73.3007 -73.7477  255 255 255
19.7634 88.7441 -55.2195  255 255 255
25.4656 37.0397 -76.3372  255 255 255
-1.19045 -11.3415 35.7322  255 255 255
21.3235 92.0903 -55.7696  255 255 255
-0.790299 -14.9474 35.4328  255 255 255
2.63229 -1.86861 23.1487  255 255 255
22.442 86.9137 -53.7226  255 255 255
-0.230109 -30.2063 37.6741  255 255 255
22.3629 97.8882 -47.8476  255 255 255
29.458 82.5184 -70.9599  255 255 255
2.95515 -43.2272 28.7948  255 255 255
32.7698 74.4314 -79.4793  255 255 255
30.6489 86.9783 -69.1249  255 255 255
33.3367 77.3349 -78.7847  255 255 255
28.4147 98.6381 -52.1016  255 255 255
30.612 97.2347 -56.9634  255 255 255
-85.5874 -37.5473 16.1347  255 255 255
-199.524 146.566 -152.45  255 255 255
-190.478 134.656 -145.126  255 255 255
-117.507 28.0446 -58.7192  255 255 255
-132.297 85.5649 -73.2423  255 255 255
-128.36 111.681 -49.9632  255 255 255
-128.147 80.6301 -69.6367  255 255 255
-128.147 80.6301 -69.6367  255 255 255
-123.399 89.1931 -55.5551  255 255 255
-122.744 79.8839 -60.17  255 255 255
-118.013 95.2722 -39.928  255 255 255
-100.576 64.8763 -29.6421  255 255 255
-81.4906 49.793 -14.4529  255 255 255
-80.3278 73.1579 -3.89767  255 255 255
-76.9274 64.6998 -4.48554  255 255 255
-76.1332 39.0979 -28.1176  255 255 255
-77.3171 84.887 -9.2136  255 255 255
-77.3171 84.887 -9.2136  255 255 255
-76.7527 87.4633 -10.3881  255 255 255
-71.9256 35.2201 -34.1196  255 255 255
-72.0854 53.1378 -21.3226  255 255 255
-69.4617 36.1551 -35.4923  255 255 255
-74.0665 98.7609 -15.5465  255 255 255
-78.891 150.15 -60.6669  255 255 255
-59.7745 61.8976 -19.8401  255 255 255
-54.0342 57.0314 -29.1005  255 255 255
-49.3096 73.9122 -17.6959  255 255 255
-27.052 -61.2885 38.8797  255 255 255
-26.1416 -62.8255 40.6139  255 255 255
-25.7851 -61.8985 39.501  255 255 255
-26.3414 -57.5497 34.3012  255 255 255
-26.3526 -57.1326 35.4152  255 255 255
-37.083 74.3951 -24.9658  255 255 255
-24.6974 -57.019 33.6077  255 255 255
-27.2148 -27.0725 20.6957  255 255 255
-41.5248 157.014 -73.4514  255 255 255
-23.3342 -57.449 31.3897  255 255 255
-20.421 -59.6911 36.7256  255 255 255
-18.0258 -60.557 36.3805  255 255 255
-16.4505 37.3026 -71.4453  255 255 255
-15.9669 -66.3837 44.2447  255 255 255
-17.1733 -28.034 35.3575  255 255 255
-15.3922 81.4605 -35.1068  255 255 255
-15.3423 -29.5788 37.0363  255 255 255
-12.4581 101.62 -36.0635  255 255 255
-13.761 -27.4434 35.6908  255 255 255
-8.43245 81.0965 -40.7377  255 255 255
-8.43245 81.0965 -40.7377  255 255 255
-13.2392 -22.6447 35.0579  255 255 255
-4.36182 83.9149 -43.9108  255 255 255
-10.2985 -0.523253 25.8039  255 255 255
-8.41315 -23.8602 35.9131  255 255 255
-6.45699 0.544526 24.1604  255 255 255
3.20262 113.409 -37.7976  255 255 255
-5.1999 -6.72352 32.7913  255 255 255
-5.28416 -6.76428 33.0055  255 255 255
16.5162 61.6839 -75.6681  255 255 255
18.0061 62.009 -80.0735  255 255 255
19.4894 62.9725 -77.9424  255 255 255
-4.01054 -30.5498 38.347  255 255 255
-2.78493 -6.94102 33.5518  255 255 255
28.2329 65.6429 -86.5666  255 255 255
-1.32004 -33.4796 36.9054  255 255 255
-0.240503 -10.8049 35.1699  255 255 255
2.93525 -24.2896 35.6504  255 255 255
-84.9933 -36.4017 16.4387  255 255 255
-158.44 102.401 -102.795  255 255 255
-159.513 104.289 -106.404  255 255 255
-150.27 95.6642 -100.396  255 255 255
-104.085 75.0037 -29.6459  255 255 255
-105.38 57.1291 -45.1459  255 255 255
-131.659 166.117 -81.1895  255 255 255
-85.91 35.4705 -31.6732  255 255 255
-102.747 119.295 -38.1917  255 255 255
-79.4721 23.3426 -39.6875  255 255 255
-94.5765 118.716 -38.1776  255 255 255
-77.8283 82.6664 -8.09177  255 255 255
-80.9432 143.469 -56.9607  255 255 255
-57.03 31.3898 -49.112  255 255 255
-29.6305 -60.0906 37.9595  255 255 255
-29.0157 -56.7516 33.9276  255 255 255
-26.3498 -26.7239 23.2422  255 255 255
-21.9154 -64.6036 40.0832  255 255 255
-19.4447 -58.8569 35.5404  255 255 255
-19.4632 -57.7339 34.4672  255 255 255
-17.2959 -24.6371 33.1801  255 255 255
-9.23387 71.4426 -49.4622  255 255 255
-1.51202 21.4735 -56.3478  255 255 255
-1.19306 25.9493 -61.526  255 255 255
-1.54563 19.487 -53.1184  255 255 255
-4.64621 99.5901 -35.2788  255 255 255
-3.39435 88.3373 -38.7348  255 255 255
-8.74103 -59.5225 35.5399  255 255 255
-1.52647 115.103 -38.6444  255 255 255
-7.98431 -22.0658 34.1324  255 255 255
12.8846 69.5211 -69.6828  255 255 255
-5.71946 -36.7399 34.8372  255 255 255
16.4294 131.295 -49.2946  255 255 255
-2.38929 -32.8012 37.8459  255 255 255
17.5365 107.468 -46.8944  255 255 255
-0.382657 -39.2733 31.9767  255 255 255
20.2437 102.858 -45.6325  255 255 255
25.3148 121.712 -53.9945  255 255 255
-148.327 92.1388 -87.6272  255 255 255
-142.935 123.24 -60.4917  255 255 255
-149.407 115.569 -86.5292  255 255 255
-134.433 118.812 -56.7678  255 255 255
-118.13 66.7028 -61.1798  255 255 255
-117.141 54.3294 -68.2114  255 255 255
-118.312 59.0658 -68.7645  255 255 255
-94.3741 46.0416 -33.4142  255 255 255
-92.0268 64.2547 -13.4588  255 255 255
-113.771 126.202 -52.7774  255 255 255
-81.2155 34.129 -26.7037  255 255 255
-78.4789 35.1466 -29.9534  255 255 255
-52.7439 -42.5795 19.1388  255 255 255
-76.2873 30.4237 -34.7134  255 255 255
-98.5913 142.374 -51.0821  255 255 255
-42.1831 -57.4857 36.4044  255 255 255
-37.5832 -50.8823 26.8526  255 255 255
-56.6518 69.4662 -12.7525  255 255 255
-67.9041 153.96 -66.7372  255 255 255
-25.3812 -35.9421 21.9786  255 255 255
-22.8687 -62.9725 40.0691  255 255 255
-22.3365 -64.4113 40.657  255 255 255
-22.3365 -64.4113 40.657  255 255 255
-22.056 -63.0302 42.1381  255 255 255
-24.0362 -23.5108 32.1546  255 255 255
-27.8222 103.436 -32.3069  255 255 255
-18.9294 -62.7381 39.9563  255 255 255
-15.6551 -32.6011 35.5147  255 255 255
-14.6161 115.673 -35.6251  255 255 255
-7.52373 68.2057 -54.3451  255 255 255
-12.8036 -27.8998 36.371  255 255 255
-12.4792 -28.7545 36.8632  255 255 255
-9.25732 -18.5371 34.2531  255 255 255
-9.04028 -10.9448 33.9455  255 255 255
1.85094 113.125 -39.8954  255 255 255
7.34155 77.4893 -55.5462  255 255 255
4.78301 105.228 -41.3081  255 255 255
11.8988 71.5512 -65.7533  255 255 255
6.5307 100.508 -39.1452  255 255 255
16.7685 77.2787 -65.2158  255 255 255
16.2128 98.1325 -41.2754  255 255 255
31.5144 99.4402 -56.2243  255 255 255
-137.549 115.361 -63.5547  255 255 255
-113.216 94.5983 -30.8216  255 255 255
-110.199 56.5374 -53.7881  255 255 255
-100.107 36.6885 -49.4831  255 255 255
-66.6387 35.5428 -43.7777  255 255 255
-31.3024 79.8042 -25.2699  255 255 255
-20.3611 -58.7581 35.6453  255 255 255
-16.1265 83.242 -34.6771  255 255 255
-14.5289 109.404 -36.8575  255 255 255
-15.1101 -22.4081 33.6495  255 255 255
-14.4589 -4.23294 26.4356  255 255 255
2.22601 91.9396 -39.2242  255 255 255
-6.91456 -28.7572 36.6094  255 255 255
11.4391 101.071 -40.0321  255 255 255
18.7188 74.575 -69.6535  255 255 255
-3.27561 -12.1448 35.9122  255 255 255
30.1781 70.1047 -79.9874  255 255 255
-96.5194 124.949 -32.777  255 255 255
-96.5194 124.949 -32.777  255 255 255
-71.8155 66.404 -5.35835  255 255 255
-52.4925 71.0389 -17.9706  255 255 255
-28.3986 -60.7351 37.9012  255 255 255
-23.7964 -35.0857 22.8643  255 255 255
-16.7767 -62.2473 38.8304  255 255 255
-7.91548 -45.7912 31.725  255 255 255
-4.98476 -18.0312 36.0039  255 255 255
21.3853 97.0603 -49.782  255 255 255
22.8696 99.2575 -43.3654  255 255 255
-30.9499 -59.8769 37.634  255 255 255
-49.3951 88.1555 -10.5009  255 255 255
-29.0973 -59.5598 36.481  255 255 255
-29.0973 -59.5598 36.481  255 255 255
-16.0597 -61.1474 38.046  255 255 255
-13.9443 -60.0484 36.8273  255 255 255
-6.83015 93.0652 -29.4925  255 255 255
-19.3475 -60.1491 37.2047  255 255 255
16.6549 94.7616 -47.4308  255 255 255
-25.9865 78.1036 -33.931  255 255 255
-15.7627 61.7904 -52.3272  255 255 255
-46.8099 86.0563 -15.6925  255 255 255
-14.1015 81.5318 -38.0326  255 255 255
-4.14551 -30.6991 38.1576  255 255 255
-35.4982 82.798 -13.419  255 255 255
-133.842 183.077 -95.5044  255 255 255
-14.0941 165.194 -86.5606  255 255 255
-131.331 171.923 -84.6704  255 255 255
-19.7636 161.239 -83.3777  255 255 255
-7.10646 141.647 -57.8621  255 255 255
-80.8907 146.58 -58.7111  255 255 255
-50.5522 150.702 -69.4325  255 255 255
-50.6149 150.891 -69.6991  255 255 255
-135.758 156.575 -73.9846  255 255 255
-81.66 135.49 -51.4683  255 255 255
-131.677 154.62 -73.3889  255 255 255
-144.073 156.26 -75.4969  255 255 255
-96.6678 123.015 -38.6687  255 255 255
-95.6831 123.55 -41.6428  255 255 255
-98.2875 117.245 -43.257  255 255 255
-50.0704 102.446 -25.825  255 255 255
-73.8824 95.7108 -14.7197  255 255 255
-110.447 120.393 -51.6867  255 255 255
-76.9579 84.395 -10.0853  255 255 255
16.0035 91.7276 -51.6902  255 255 255
-22.3244 82.1951 -30.7294  255 255 255
15.5039 90.6176 -51.5355  255 255 255
-17.3814 83.3788 -34.8566  255 255 255
-9.35161 85.1063 -40.0971  255 255 255
-2.59037 85.484 -45.2947  255 255 255
29.6262 92.674 -63.7091  255 255 255
-9.22751 82.7126 -40.7167  255 255 255
17.8955 87.652 -56.3946  255 255 255
-14.4823 80.1528 -40.036  255 255 255
11.5654 86.3294 -55.6939  255 255 255
-59.828 68.9604 -13.7412  255 255 255
12.6361 84.0975 -57.1974  255 255 255
-15.1437 77.2346 -40.2644  255 255 255
-68.1271 65.3986 -11.0261  255 255 255
-16.3124 75.8669 -39.5932  255 255 255
28.7171 86.147 -67.1568  255 255 255
28.7171 86.147 -67.1568  255 255 255
43.2449 87.0314 -76.1039  255 255 255
15.7548 80.8456 -60.5782  255 255 255
8.28004 79.0115 -57.4779  255 255 255
19.0398 79.4064 -65.2705  255 255 255
-21.4247 71.1495 -41.7197  255 255 255
-21.4247 71.1495 -41.7197  255 255 255
27.8476 79.0612 -72.4578  255 255 255
-40.6203 64.8227 -32.1122  255 255 255
0.520092 72.5345 -56.3071  255 255 255
15.2236 75.3837 -65.6188  255 255 255
-45.1505 63.5277 -30.9271  255 255 255
-1.17183 70.8309 -57.474  255 255 255
-2.08341 70.4959 -56.865  255 255 255
-17.2024 67.2468 -47.7591  255 255 255
-22.3114 66.3749 -45.5475  255 255 255
-32.3853 63.6399 -41.2435  255 255 255
-16.9743 65.823 -49.4925  255 255 255
41.4529 76.2376 -84.6568  255 255 255
21.034 72.3669 -73.1945  255 255 255
10.6946 69.5248 -66.1502  255 255 255
-2.77238 67.1448 -59.6347  255 255 255
46.4998 74.0721 -89.0011  255 255 255
-35.1003 59.8394 -42.7066  255 255 255
43.611 72.8822 -88.2439  255 255 255
-54.5301 54.4388 -29.7815  255 255 255
-16.8928 61.3104 -53.3555  255 255 255
-16.8928 61.3104 -53.3555  255 255 255
-12.7996 60.5291 -56.3201  255 255 255
-31.2189 57.2963 -47.1207  255 255 255
-41.6 54.9249 -39.7812  255 255 255
-41.5774 54.8561 -39.6216  255 255 255
-50.2194 53.0949 -34.2041  255 255 255
11.7137 63.4189 -72.4826  255 255 255
-1.12239 61.2092 -64.5831  255 255 255
-26.2559 57.205 -50.6137  255 255 255
-1.46242 60.8683 -64.9125  255 255 255
-30.8017 55.9328 -49.1851  255 255 255
-2.36503 60.4172 -65.736  255 255 255
-16.2535 57.7542 -56.9078  255 255 255
32.012 65.4752 -86.4208  255 255 255
0.173202 59.543 -66.412  255 255 255
-41.0184 52.7519 -41.7656  255 255 255
-54.0967 50.5629 -34.0142  255 255 255
-28.7723 54.4611 -50.2145  255 255 255
-17.2447 56.3746 -57.5177  255 255 255
43.3327 65.5167 -93.5834  255 255 255
-17.5784 55.7717 -57.1394  255 255 255
-17.574 55.795 -57.2427  255 255 255
-29.2569 52.9494 -51.3379  255 255 255
-41.6108 51.0055 -44.3453  255 255 255
-22.8887 53.6463 -56.1639  255 255 255
-64.3402 46.3816 -30.5047  255 255 255
-13.9623 54.3399 -61.9007  255 255 255
-25.6723 52.293 -54.3462  255 255 255
-25.7773 51.9766 -53.2948  255 255 255
-22.2246 52.2769 -56.4977  255 255 255
-65.3487 45.1267 -30.4749  255 255 255
-65.3487 45.1267 -30.4749  255 255 255
-31.018 50.6409 -52.4263  255 255 255
-33.2059 49.89 -50.9664  255 255 255
-27.3253 50.7532 -55.1754  255 255 255
-29.3519 50.2803 -54.062  255 255 255
-8.3165 53.4141 -66.811  255 255 255
-51.3588 46.6042 -40.5777  255 255 255
-65.0063 44.3388 -32.3196  255 255 255
-25.914 50.3206 -56.3448  255 255 255
8.81235 55.1686 -77.3466  255 255 255
-45.8945 47.2378 -44.9167  255 255 255
-64.0036 43.7955 -33.133  255 255 255
-46.7983 46.2512 -44.5925  255 255 255
-19.5794 47.3006 -55.9081  255 255 255
-7.60074 48.7788 -70.2641  255 255 255
-36.2998 44.0795 -52.497  255 255 255
-76.7622 38.2061 -27.593  255 255 255
-76.5996 38.5127 -28.8939  255 255 255
6.46621 49.5962 -80.1189  255 255 255
-15.7076 46.6791 -67.9253  255 255 255
5.66782 48.1971 -81.6142  255 255 255
-60.0488 39.152 -40.7205  255 255 255
-74.2805 36.3048 -31.1643  255 255 255
-72.3588 36.7465 -33.2315  255 255 255
-71.7353 36.7329 -33.3003  255 255 255
-78.1385 35.8916 -29.8097  255 255 255
-34.3252 41.5967 -58.883  255 255 255
-77.6737 34.8566 -29.6127  255 255 255
-43.0788 27.7581 -15.1433  255 255 255
-11.7482 40.0659 -76.1068  255 255 255
-29.7063 37.7461 -65.451  255 255 255
-29.7678 37.3866 -63.8426  255 255 255
-15.4358 38.7644 -74.1262  255 255 255
-33.8299 36.218 -64.047  255 255 255
-33.8299 36.218 -64.047  255 255 255
10.5612 34.731 -72.2219  255 255 255
10.2905 34.021 -71.2143  255 255 255
11.4949 33.553 -71.0429  255 255 255
-52.8317 31.3653 -52.5036  255 255 255
-68.8343 29.7558 -43.1891  255 255 255
-62.5353 30.2686 -46.1671  255 255 255
-63.4154 30.0024 -46.0947  255 255 255
-77.9832 27.812 -36.6624  255 255 255
-53.7683 30.5754 -52.4971  255 255 255
-80.4011 25.9709 -35.8916  255 255 255
-82.1103 25.6004 -35.6402  255 255 255
-82.7209 25.223 -35.335  255 255 255
-1.60191 28.1198 -63.2339  255 255 255
-79.8746 24.9386 -37.9009  255 255 255
-44.2882 28.6078 -62.02  255 255 255
-77.7984 24.312 -40.2173  255 255 255
-65.9199 24.4448 -48.6023  255 255 255
-77.2993 22.8661 -41.4109  255 255 255
-48.1099 16.2233 -48.0412  255 255 255
-18.8874 12.4902 -45.056  255 255 255
-21.2695 9.13981 -40.7674  255 255 255
-31.965 8.86183 -41.3523  255 255 255
-34.4542 8.43882 -40.0887  255 255 255
-9.0131 -1.34777 27.4631  255 255 255
-18.3245 2.17648 1.85937  255 255 255
-14.798 1.13346 7.4138  255 255 255
-16.0452 0.342763 8.68849  255 255 255
-24.0098 5.07186 -33.7664  255 255 255
-16.5146 -0.661035 10.1248  255 255 255
-17.8183 -1.07132 10.1937  255 255 255
-27.0338 4.29692 -33.586  255 255 255
-12.0722 -3.34621 27.6488  255 255 255
-20.2849 -0.592158 5.38849  255 255 255
-18.6914 -1.70616 11.952  255 255 255
-22.5389 -1.13008 6.02312  255 255 255
-18.8617 -1.86126 11.1415  255 255 255
-17.9558 -1.96522 11.9618  255 255 255
-19.279 -1.96636 11.5979  255 255 255
-19.2536 -1.94736 11.4573  255 255 255
-15.0293 -3.83366 25.5916  255 255 255
-15.5133 -4.25152 25.472  255 255 255
-50.4458 2.64989 -32.3287  255 255 255
-18.862 -3.16561 13.0675  255 255 255
-19.1689 -3.48189 13.5071  255 255 255
-24.8242 -3.23139 8.67787  255 255 255
-19.152 -4.0007 14.2027  255 255 255
-25.6401 -3.63343 9.27561  255 255 255
-25.2811 -3.9191 9.48226  255 255 255
-25.2811 -3.9191 9.48226  255 255 255
-23.4099 -3.98722 9.47855  255 255 255
-20.2816 -5.05882 15.9639  255 255 255
-21.0788 -5.08598 15.4163  255 255 255
-11.8702 -6.83684 30.3562  255 255 255
-24.9979 -1.10683 -27.8183  255 255 255
-24.7883 -0.963288 -29.5006  255 255 255
-23.7975 -4.83225 9.93212  255 255 255
-21.3883 -5.45674 15.6911  255 255 255
-9.84083 -7.75136 32.0196  255 255 255
-26.6066 -5.74226 12.4587  255 255 255
-21.6188 -6.66892 17.1653  255 255 255
-21.9115 -6.69147 17.3155  255 255 255
-60.5104 -3.71313 -24.3723  255 255 255
-22.4631 -7.84914 18.5054  255 255 255
-12.058 -9.61039 31.6653  255 255 255
-40.8658 -5.19824 -24.0309  255 255 255
-2.7232 -10.258 35.2096  255 255 255
-57.0014 208.632 -114.022  255 255 255
-103.53 193.833 -99.9728  255 255 255
-115.345 190.477 -95.0437  255 255 255
-111.352 188.945 -94.5101  255 255 255
-111.352 188.945 -94.5101  255 255 255
-115.237 189.467 -94.9795  255 255 255
-110.593 187.934 -94.5728  255 255 255
-34.4649 191.985 -109.536  255 255 255
-38.3801 189.635 -107.652  255 255 255
-102.003 181.57 -92.4102  255 255 255
-98.3086 180.833 -93.1579  255 255 255
-104.778 179.059 -90.3186  255 255 255
-121.789 184.567 -99.8982  255 255 255
-127.233 183.292 -98.4475  255 255 255
-46.9221 158.114 -74.2713  255 255 255
-29.7271 160.306 -79.9541  255 255 255
-93.5178 143.046 -50.8894  255 255 255
-61.3998 151.997 -66.7894  255 255 255
-62.6518 151.845 -66.6456  255 255 255
-30.1311 158.389 -79.1642  255 255 255
-51.8416 153.036 -69.7608  255 255 255
-55.7626 152.377 -68.6941  255 255 255
-55.7626 152.377 -68.6941  255 255 255
-126.837 170.055 -84.623  255 255 255
-36.1314 155.386 -75.1032  255 255 255
-93.5333 141.479 -50.1317  255 255 255
-83.2262 145.419 -56.9204  255 255 255
-33.0751 155.481 -76.6064  255 255 255
-45.9709 153.237 -72.2602  255 255 255
-52.1859 151.177 -69.0969  255 255 255
-132.367 165.738 -80.5009  255 255 255
-132.94 164.332 -80.1228  255 255 255
-81.2914 143.048 -56.7227  255 255 255
-66.8407 145.662 -62.4383  255 255 255
-54.2983 146.725 -66.6192  255 255 255
-82.4393 139.643 -53.6224  255 255 255
-68.3721 143.105 -60.6187  255 255 255
-65.5536 143.486 -61.742  255 255 255
4.91922 131.358 -51.8699  255 255 255
-32.5985 149.202 -74.2778  255 255 255
17.5941 130.154 -52.18  255 255 255
17.57 129.974 -51.8587  255 255 255
-129.6 158.984 -76.9358  255 255 255
-6.37427 127.468 -46.2866  255 255 255
-133.026 157.866 -75.3683  255 255 255
-132.01 156.297 -74.6965  255 255 255
-137.367 154.637 -71.8603  255 255 255
-134.377 153.351 -71.9274  255 255 255
-135.612 153.147 -71.6229  255 255 255
-64.5123 138.646 -59.8794  255 255 255
-17.0373 116.153 -37.655  255 255 255
-0.103344 114.273 -37.4985  255 255 255
-99.3812 121.012 -38.8283  255 255 255
-75.4817 102.816 -16.1402  255 255 255
-96.386 119.369 -42.9499  255 255 255
-100.628 117.032 -41.5866  255 255 255
-50.4241 101.586 -24.8514  255 255 255
17.6471 109.585 -47.7521  255 255 255
-164.285 145.915 -87.0676  255 255 255
-99.9076 114.511 -44.4985  255 255 255
-163.905 145.708 -87.42  255 255 255
-163.22 144.918 -86.5014  255 255 255
-115.878 107.471 -44.6863  255 255 255
-76.7383 82.9383 -9.84877  255 255 255
13.9515 96.8861 -44.8964  255 255 255
8.05899 95.6719 -42.3606  255 255 255
11.6684 91.5586 -48.9351  255 255 255
-83.2871 80.23 -20.6271  255 255 255
-27.1941 79.2301 -29.6656  255 255 255
-10.2848 81.3978 -41.1057  255 255 255
-10.7867 78.3597 -43.2971  255 255 255
-61.0221 67.069 -14.0736  255 255 255
-61.0221 67.069 -14.0736  255 255 255
-82.1268 62.4656 -2.27022  255 255 255
29.7612 86.9285 -68.0032  255 255 255
-7.01243 77.1206 -46.8991  255 255 255
-4.22998 78.329 -50.2704  255 255 255
20.5075 82.7931 -63.9029  255 255 255
-4.86118 76.6435 -49.5549  255 255 255
-11.8923 74.545 -45.5682  255 255 255
-23.0577 71.7668 -39.5052  255 255 255
-23.0604 71.7743 -39.5287  255 255 255
-55.7343 64.4222 -20.0614  255 255 255
-59.0578 63.775 -18.6838  255 255 255
10.6008 78.314 -59.3014  255 255 255
22.3401 81.2764 -68.0898  255 255 255
-55.3629 63.8099 -21.8729  255 255 255
-41.5509 66.4077 -29.5567  255 255 255
15.7921 77.8658 -63.0281  255 255 255
-41.8553 66.0198 -29.6922  255 255 255
14.498 77.6446 -62.872  255 255 255
17.7899 78.3744 -64.9633  255 255 255
-21.5529 70.2083 -41.9715  255 255 255
-153.017 100.824 -97.4567  255 255 255
11.4198 75.9252 -61.5013  255 255 255
-42.3117 65.1141 -30.3939  255 255 255
-42.2898 65.1539 -30.4768  255 255 255
-56.1403 61.9233 -22.4771  255 255 255
-56.1403 61.9233 -22.4771  255 255 255
0.172063 73.1619 -56.9685  255 255 255
24.0985 78.0373 -71.7378  255 255 255
-1.80303 71.9368 -54.4572  255 255 255
-19.9931 68.3127 -44.0166  255 255 255
-44.595 63.5024 -30.1762  255 255 255
-0.00627152 72.6146 -56.9395  255 255 255
1.31186 72.2642 -57.5159  255 255 255
-15.5165 68.5238 -47.9071  255 255 255
-36.1538 64.2481 -35.7709  255 255 255
-23.9998 66.1155 -43.7877  255 255 255
-48.498 61.3073 -29.6192  255 255 255
-17.1941 66.3732 -48.702  255 255 255
39.7395 77.3759 -82.7253  255 255 255
14.3656 71.4176 -68.6338  255 255 255
-16.4884 63.4089 -51.9593  255 255 255
-50.1215 56.9763 -32.1083  255 255 255
10.6512 67.1047 -69.3945  255 255 255
10.432 65.5288 -70.084  255 255 255
22.7972 67.6846 -78.4899  255 255 255
14.1743 65.5777 -72.3269  255 255 255
-160.12 74.1052 -103.419  255 255 255
26.9466 61.3424 -87.864  255 255 255
46.7058 64.2149 -99.2936  255 255 255
-3.65609 54.3803 -66.3676  255 255 255
27.694 59.8233 -87.6339  255 255 255
2.52577 54.9861 -74.2097  255 255 255
-8.88771 52.6208 -65.7035  255 255 255
35.6003 59.3041 -94.9722  255 255 255
-75.1601 41.985 -26.4755  255 255 255
-79.9879 40.8225 -22.5775  255 255 255
-26.7801 47.274 -55.2177  255 255 255
-12.9509 48.4198 -68.1763  255 255 255
-58.5631 41.4439 -38.859  255 255 255
-72.0582 38.5211 -30.5859  255 255 255
-72.1269 38.6827 -31.1175  255 255 255
-31.1305 44.5559 -57.9338  255 255 255
-73.6718 38.3127 -30.8619  255 255 255
-73.9358 37.9919 -30.9446  255 255 255
-77.3148 37.0403 -28.5797  255 255 255
-77.3148 37.0403 -28.5797  255 255 255
-14.5195 44.9516 -69.8301  255 255 255
-14.5289 44.9368 -69.8058  255 255 255
-54.4567 39.293 -44.2234  255 255 255
-58.5772 36.116 -43.5615  255 255 255
-76.0647 32.0589 -31.6706  255 255 255
-11.2933 40.2115 -75.9816  255 255 255
-36.2048 35.4982 -61.0531  255 255 255
-36.2436 35.6259 -61.5173  255 255 255
-81.5235 29.1129 -33.0869  255 255 255
-51.8759 30.7145 -53.3945  255 255 255
-51.8876 30.7602 -53.5851  255 255 255
4.64219 31.731 -68.1182  255 255 255
-83.6363 24.9414 -34.548  255 255 255
-81.7292 23.6511 -37.2484  255 255 255
-78.1877 24.1167 -40.1931  255 255 255
-83.1182 22.5907 -35.9484  255 255 255
9.31741 23.6753 -58.6688  255 255 255
-77.7981 22.7153 -41.84  255 255 255
7.05207 23.3035 -58.2609  255 255 255
4.63513 22.2817 -56.6089  255 255 255
-69.2971 19.8282 -49.3862  255 255 255
-73.7031 16.4736 -46.2982  255 255 255
-7.54219 2.41258 21.609  255 255 255
-7.61599 2.40325 21.82  255 255 255
-13.1917 12.3196 -45.2659  255 255 255
-17.6756 12.5009 -46.3274  255 255 255
-15.0471 11.22 -44.0978  255 255 255
-10.8598 0.653425 23.3155  255 255 255
-15.042 -0.542713 19.9932  255 255 255
-9.98225 -1.76467 27.4543  255 255 255
-16.0008 0.909066 7.94614  255 255 255
-37.0325 7.59523 -39.1849  255 255 255
-16.6746 0.123884 8.82588  255 255 255
-16.6385 0.153904 8.64865  255 255 255
-17.1683 -0.527563 9.69735  255 255 255
-66.9224 5.55264 -34.447  255 255 255
-17.2654 -0.8627 10.1519  255 255 255
-13.6711 -2.9264 25.8629  255 255 255
-9.20589 -3.53398 29.2376  255 255 255
-71.5829 4.61358 -34.2667  255 255 255
-72.8403 3.94209 -32.3442  255 255 255
-18.2278 -2.45874 12.0784  255 255 255
-15.6616 -5.09028 26.0099  255 255 255
-7.06204 -6.49117 32.4896  255 255 255
-81.2068 -0.692373 -26.6902  255 255 255
-20.2704 -5.69436 16.0255  255 255 255
-23.8439 -5.1864 10.8186  255 255 255
-11.6256 -8.49549 31.4818  255 255 255
-39.3155 189.332 -106.09  255 255 255
-43.5931 187.801 -105.349  255 255 255
-108.487 180.146 -90.156  255 255 255
-19.2281 167.202 -86.0039  255 255 255
-58.2876 154.685 -69.5688  255 255 255
-87.2298 144.866 -53.8461  255 255 255
-87.2298 144.866 -53.8461  255 255 255
-6.0288 141.816 -58.4142  255 255 255
17.8597 133.215 -48.7133  255 255 255
-60.8066 151.031 -66.8074  255 255 255
-63.4211 150.537 -65.9631  255 255 255
-81.8312 145.574 -57.1674  255 255 255
-43.508 153.764 -72.9112  255 255 255
-82.4131 145.457 -57.3621  255 255 255
-73.3944 147.402 -61.2439  255 255 255
-93.5807 140.347 -49.4647  255 255 255
-80.7827 145.167 -57.6159  255 255 255
-40.1048 153.04 -73.904  255 255 255
-51.4623 149.934 -68.8376  255 255 255
-91.6748 139.442 -49.8594  255 255 255
